ply
		format ascii 1.0
		element vertex 54068
		property float x
		property float y
		property float z
		property uchar red
		property uchar green
		property uchar blue
		end_header
17265.935547 27321.921875 33203.722656 137 140 134
17349.078125 27303.468750 33181.296875 133 137 131
17428.087891 27278.746094 33151.253906 133 133 131
17519.738281 27273.972656 33145.453125 128 128 126
17599.435547 27250.740234 33117.218750 123 124 121
17673.312500 27218.791016 33078.390625 121 121 119
17746.755859 27186.519531 33039.171875 116 119 116
17824.005859 27160.388672 33007.417969 116 119 116
17912.552734 27151.658203 32996.804688 119 119 117
17994.136719 27132.521484 32973.550781 121 121 119
18075.943359 27113.914062 32950.937500 123 124 121
18156.417969 27093.515625 32926.148438 126 126 124
18233.658203 27068.525391 32895.777344 127 128 123
18316.628906 27052.251953 32876.000000 128 129 124
18391.560547 27024.332031 32842.070312 128 129 124
18469.484375 27001.074219 32813.804688 127 128 123
18546.058594 26976.085938 32783.437500 126 126 122
18617.480469 26943.892578 32744.314453 126 126 122
18695.953125 26922.171875 32717.917969 125 125 121
18766.929688 26889.929688 32678.734375 123 124 119
18842.917969 26865.150391 32648.619141 122 123 118
18919.644531 26841.664062 32620.078125 121 122 117
18992.308594 26812.669922 32584.843750 118 118 114
19072.841797 26795.017578 32563.390625 114 115 110
19147.263672 26768.990234 32531.757812 113 114 109
19226.121094 26749.386719 32507.935547 109 110 105
19305.429688 26730.595703 32485.097656 107 107 105
19380.632812 26706.326172 32455.603516 104 104 102
19462.089844 26690.867188 32436.816406 101 102 99
19537.087891 26666.736328 32407.492188 100 100 98
19615.750000 26647.812500 32384.494141 98 98 96
19694.162109 26628.726562 32361.300781 95 96 93
19768.107422 26603.808594 32331.017578 95 92 93
19848.158203 26587.298828 32310.953125 94 91 92
19923.123047 26564.164062 32282.837891 92 90 91
20002.601562 26547.232422 32262.261719 92 90 91
20083.246094 26531.996094 32243.744141 93 88 90
20160.742188 26512.757812 32220.365234 92 87 88
20243.931641 26501.146484 32206.253906 93 86 86
20323.693359 26485.173828 32186.843750 92 85 85
20406.875000 26473.785156 32173.001953 93 83 84
20490.962891 26463.666016 32160.705078 93 83 84
20572.498047 26450.353516 32144.527344 91 82 83
20657.871094 26442.074219 32134.464844 90 81 82
20740.572266 26430.464844 32120.355469 92 81 80
20825.587891 26421.892578 32109.939453 92 81 80
20911.343750 26414.328125 32100.746094 91 79 79
20995.410156 26404.708984 32089.054688 91 79 79
21082.474609 26398.925781 32082.027344 89 78 77
21168.593750 26392.013672 32073.626953 88 77 76
21256.921875 26387.902344 32068.630859 89 75 73
21346.037109 26384.800781 32064.863281 89 75 73
21434.306641 26380.685547 32059.861328 88 74 72
21524.091797 26378.460938 32057.158203 86 73 71
21610.503906 26372.140625 32049.474609 85 72 70
21696.359375 26365.195312 32041.037109 84 71 68
21781.326172 26357.234375 32031.361328 80 70 64
21865.408203 26348.273438 32020.472656 79 69 63
21952.234375 26342.681641 32013.675781 78 67 62
22036.857422 26334.500000 32003.734375 77 66 61
22122.947266 26328.136719 31995.998047 74 66 59
22209.550781 26322.431641 31989.064453 73 65 58
22295.138672 26315.574219 31980.732422 72 63 59
22383.169922 26311.644531 31975.957031 72 63 59
22470.367188 26306.771484 31970.035156 70 62 58
22558.853516 26303.441406 31965.988281 69 61 57
22648.248047 26301.191406 31963.253906 68 60 56
22737.365234 26298.640625 31960.152344 68 60 56
22827.808594 26297.634766 31958.931641 67 58 54
22918.388672 26296.796875 31957.914062 66 57 53
23009.146484 26296.167969 31957.148438 65 56 52
23100.845703 26296.615234 31957.691406 65 56 52
23193.316406 26297.933594 31959.294922 65 54 51
23286.134766 26299.634766 31961.361328 64 53 50
23380.998047 26303.623047 31966.207031 64 53 50
23475.521484 26307.199219 31970.554688 63 52 49
23571.298828 26312.146484 31976.566406 63 52 49
23668.880859 26319.064453 31984.974609 62 51 47
23765.126953 26324.447266 31991.517578 62 51 45
23864.828125 26333.603516 32002.642578 60 50 44
23963.339844 26341.380859 32012.093750 59 49 43
24062.197266 26349.478516 32021.935547 59 49 43
24162.501953 26359.093750 32033.621094 58 48 42
24259.501953 26365.042969 32040.851562 57 46 41
24359.882812 26374.609375 32052.476562 56 45 40
24458.562500 26382.269531 32061.787109 53 43 37
24557.517578 26390.167969 32071.384766 51 42 38
24658.699219 26400.390625 32083.808594 51 42 38
24756.728516 26407.177734 32092.056641 49 41 37
24858.113281 26417.478516 32104.574219 48 40 36
24956.951172 26425.007812 32113.724609 48 40 34
25056.375000 26433.099609 32123.558594 47 39 33
25159.099609 26444.601562 32137.537109 47 39 33
25258.843750 26452.898438 32147.619141 47 39 33
25363.515625 26466.275391 32163.876953 48 40 34
25465.478516 26476.744141 32176.597656 48 40 34
25568.363281 26488.089844 32190.386719 47 39 33
25675.095703 26503.324219 32208.900391 46 38 32
25777.455078 26513.953125 32221.818359 45 37 30
25885.800781 26530.642578 32242.099609 44 36 29
25990.994141 26543.994141 32258.326172 42 34 28
26096.263672 26557.328125 32274.531250 41 33 27
26205.080078 26574.166016 32294.994141 41 33 27
26308.058594 26584.984375 32308.140625 40 32 26
26414.705078 26599.423828 32325.687500 39 31 25
26516.851562 26609.246094 32337.625000 38 30 23
26618.011719 26618.011719 32348.277344 38 30 23
26722.164062 26629.701172 32362.482422 38 30 23
26822.001953 26637.023438 32371.380859 38 30 23
26927.326172 26649.724609 32386.818359 38 30 23
27030.304688 26660.027344 32399.337891 38 29 25
27134.802734 26671.750000 32413.585938 38 29 25
27243.814453 26687.818359 32433.113281 38 29 25
27348.335938 26699.392578 32447.179688 37 28 24
27460.292969 26718.123047 32469.941406 35 27 23
27568.441406 26733.033203 32488.062500 34 26 22
27677.636719 26748.857422 32507.291016 34 26 22
27791.882812 26769.439453 32532.304688 34 26 22
27899.298828 26783.326172 32549.181641 34 26 22
28015.037109 26805.083984 32575.623047 34 26 22
28125.316406 26821.494141 32595.564453 36 25 20
28237.216797 26839.335938 32617.248047 36 25 20
28356.654297 26864.199219 32647.464844 36 25 20
28468.765625 26881.982422 32669.076172 36 25 20
28592.689453 26910.767578 32704.056641 36 25 20
28710.519531 26933.646484 32731.861328 37 27 21
28830.101562 26958.017578 32761.478516 38 28 22
28957.945312 26989.929688 32800.261719 39 29 23
29074.978516 27011.593750 32826.589844 42 29 25
29205.687500 27045.781250 32868.136719 42 29 25
29328.730469 27072.675781 32900.820312 42 29 25
29452.914062 27100.445312 32934.570312 43 30 26
29586.289062 27136.470703 32978.347656 43 30 26
29706.675781 27160.388672 33007.417969 43 30 26
29842.304688 27198.048828 33053.183594 46 31 27
29969.035156 27227.388672 33088.839844 48 33 29
30097.355469 27257.982422 33126.019531 51 34 28
30237.300781 27298.880859 33175.722656 52 35 29
30363.177734 27326.859375 33209.726562 57 36 25
30504.626953 27368.636719 33260.496094 59 38 27
30634.097656 27399.441406 33297.929688 61 37 27
30764.792969 27431.146484 33336.464844 62 38 28
30909.171875 27474.820312 33389.539062 62 38 28
31038.781250 27505.134766 33426.378906 62 38 28
31187.671875 27552.298828 33483.695312 62 39 26
31324.726562 27588.750000 33527.992188 62 39 26
31463.544922 27626.527344 33573.902344 62 39 26
31616.517578 27676.464844 33634.593750 62 39 26
31751.244141 27710.177734 33675.562500 61 38 25
31908.220703 27763.042969 33739.808594 59 36 24
32052.376953 27804.470703 33790.156250 56 35 23
32198.097656 27847.003906 33841.843750 53 32 21
32358.966797 27902.341797 33909.097656 45 30 24
32498.564453 27939.064453 33953.726562 41 27 20
32662.332031 27996.285156 34023.261719 32 24 20
32812.089844 28041.191406 34077.835938 26 18 14
32962.773438 28086.623047 34133.046875 19 15 12
33130.125000 28145.949219 34205.144531 17 13 10
33274.281250 28185.273438 34252.937500 19 12 10
33438.683594 28241.470703 34321.230469 22 16 13
33586.320312 28283.218750 34371.964844 26 18 14
33730.351562 28321.695312 34418.726562 31 22 18
33886.898438 28370.427734 34477.949219 34 26 20
34021.152344 28400.267578 34514.214844 37 29 22
34172.136719 28443.859375 34567.191406 33 25 19
34310.835938 28477.005859 34607.472656 27 19 13
34446.835938 28507.726562 34644.804688 21 15 10
34592.585938 28546.316406 34691.703125 19 13 8
34720.265625 28569.820312 34720.265625 25 19 14
34862.109375 28604.806641 34762.785156 34 28 23
34994.566406 28631.917969 34795.734375 48 34 23
35125.062500 28657.275391 34826.550781 55 41 30
35262.722656 28688.316406 34864.273438 69 46 31
35385.140625 28706.818359 34886.757812 75 52 37
35521.296875 28736.330078 34922.625000 84 57 41
35646.957031 28757.207031 34947.996094 91 64 48
35778.632812 28782.810547 34979.109375 102 68 55
35929.964844 28824.039062 35029.214844 109 75 62
36071.726562 28857.380859 35069.734375 117 79 64
36239.007812 28910.896484 35134.769531 121 82 68
36402.718750 28961.279297 35196.000000 123 85 68
36554.183594 29001.666016 35245.082031 125 87 70
36679.769531 29021.355469 35269.007812 131 88 73
36767.480469 29011.052734 35256.488281 130 87 72
36910.750000 29044.525391 35297.164062 125 84 70
37103.738281 29116.828125 35385.035156 120 79 65
37295.371094 29187.681641 35471.140625 109 72 59
37323.503906 29130.541016 35401.699219 98 61 49
37257.027344 29000.062500 35243.132812 92 53 39
37745.437500 29301.041016 35608.906250 87 48 34
37843.621094 29298.287109 35605.558594 84 48 33
39460.351562 30468.046875 37027.140625 82 46 30
44540.207031 34298.339844 41682.011719 77 43 29
51845.984375 39817.714844 48389.582031 71 37 23
66843.109375 51198.976562 62220.980469 64 37 21
37424.683594 63621.964844 77050.820312 110 107 101
29202.007812 49353.101562 59770.191406 102 98 93
23939.335938 40223.652344 48713.765625 91 92 87
20515.314453 34271.246094 41504.968750 86 87 82
18282.865234 30366.369141 36775.878906 87 90 86
17658.044922 29161.000000 35316.089844 92 94 91
17136.517578 28138.941406 34078.300781 99 101 100
17017.398438 27785.468750 33650.222656 107 109 108
17151.326172 27846.814453 33724.515625 123 126 123
17131.205078 27658.761719 33496.769531 139 142 139
17172.472656 27571.359375 33390.917969 144 147 141
17207.474609 27474.919922 33274.125000 140 144 138
17265.585938 27416.230469 33203.046875 137 140 134
17344.667969 27391.306641 33172.863281 133 137 131
17425.240234 27368.992188 33145.839844 133 133 131
17523.777344 27374.980469 33153.089844 128 128 126
17608.314453 27359.154297 33133.925781 125 125 123
17681.902344 27326.576172 33094.468750 121 121 119
17753.341797 27291.041016 33051.433594 117 120 117
17829.767578 27263.507812 33018.089844 116 119 116
17917.996094 27254.214844 33006.835938 119 119 117
17999.263672 27234.488281 32982.945312 121 121 119
18081.003906 27215.677734 32960.164062 122 123 118
18161.435547 27195.101562 32935.246094 125 125 121
18238.408203 27169.587891 32904.347656 127 128 123
18321.119141 27152.837891 32884.058594 127 128 123
18395.455078 27123.910156 32849.027344 127 128 123
18472.785156 27099.669922 32819.667969 127 128 123
18548.691406 27073.593750 32788.089844 126 126 122
18619.316406 27040.113281 32747.542969 126 126 122
18697.267578 27017.552734 32720.218750 126 126 122
18767.648438 26984.330078 32679.984375 125 125 121
18843.230469 26958.878906 32649.162109 123 124 119
18919.755859 26935.023438 32620.269531 121 122 117
18992.291016 26905.746094 32584.814453 120 121 116
19072.906250 26888.146484 32563.500000 116 117 112
19147.505859 26862.277344 32532.169922 114 115 110
19226.535156 26842.845703 32508.634766 111 111 107
19306.062500 26824.291016 32486.164062 108 109 106
19381.529297 26800.296875 32457.107422 106 106 104
19463.171875 26785.031250 32438.619141 102 103 100
19538.382812 26761.103516 32409.640625 100 100 98
19617.187500 26742.296875 32386.865234 98 98 96
19695.683594 26723.251953 32363.798828 97 97 95
19769.697266 26698.328125 32333.617188 96 94 92
19849.744141 26681.750000 32313.537109 95 93 91
19924.650391 26658.443359 32285.312500 95 92 93
20004.058594 26641.349609 32264.611328 94 91 92
20084.587891 26625.898438 32245.898438 94 89 91
20161.958984 26606.421875 32222.310547 93 88 90
20245.066406 26594.656250 32208.060547 94 88 88
20324.583984 26578.302734 32188.255859 92 85 85
20407.507812 26566.531250 32174.000000 93 83 84
20491.265625 26555.945312 32161.179688 93 83 84
20572.382812 26542.046875 32144.347656 91 82 83
20657.458984 26533.359375 32133.826172 90 81 82
20739.712891 26521.136719 32119.025391 92 81 80
20824.390625 26512.109375 32108.091797 92 81 80
20909.808594 26504.099609 32098.390625 91 79 79
20993.441406 26493.906250 32086.044922 91 79 79
21080.208984 26487.742188 32078.580078 89 78 77
21165.984375 26480.386719 32069.671875 88 77 76
21254.082031 26475.990234 32064.347656 87 76 73
21343.054688 26472.716797 32060.382812 86 75 72
21431.146484 26468.380859 32055.132812 86 73 71
21520.843750 26466.058594 32052.318359 85 72 70
21607.330078 26459.822266 32044.769531 84 71 68
21693.427734 26453.167969 32036.708984 83 70 67
21778.646484 26445.500000 32027.421875 80 70 64
21862.796875 26436.603516 32016.648438 79 69 63
21949.533203 26430.894531 32009.734375 76 68 62
22034.064453 26422.591797 31999.677734 75 67 61
22120.117188 26416.173828 31991.906250 74 66 59
22206.689453 26410.423828 31984.943359 73 65 58
22292.240234 26403.513672 31976.572266 72 63 59
22380.240234 26399.548828 31971.771484 70 62 58
22467.404297 26394.632812 31965.818359 69 61 57
22555.853516 26391.261719 31961.736328 68 60 56
22645.226562 26388.992188 31958.988281 67 58 54
22734.337891 26386.441406 31955.898438 67 58 54
22824.789062 26385.455078 31954.703125 66 57 53
22915.414062 26384.679688 31953.765625 65 56 52
23006.228516 26384.126953 31953.093750 65 56 52
23097.980469 26384.650391 31953.728516 65 56 52
23190.494141 26386.035156 31955.404297 65 54 51
23283.312500 26387.753906 31957.488281 64 53 50
23378.185547 26391.779297 31962.363281 64 53 50
23472.714844 26395.386719 31966.732422 63 52 49
23568.480469 26400.351562 31972.744141 63 52 49
23666.042969 26407.283203 31981.138672 62 51 47
23762.261719 26412.667969 31987.660156 60 50 44
23861.908203 26421.804688 31998.726562 59 49 43
23960.406250 26429.607422 32008.175781 59 49 43
24059.185547 26437.660156 32017.927734 58 48 42
24159.248047 26447.054688 32029.304688 57 46 41
24255.970703 26452.738281 32036.187500 56 45 40
24356.119141 26462.099609 32047.525391 55 44 38
24454.753906 26469.751953 32056.792969 53 43 37
24553.714844 26477.701172 32066.419922 51 42 38
24654.833984 26487.908203 32078.781250 51 42 38
24752.800781 26494.666016 32086.964844 49 41 37
24854.082031 26504.906250 32099.367188 48 40 36
24952.826172 26512.378906 32108.416016 47 39 33
25052.150391 26520.408203 32118.140625 47 39 33
25154.767578 26531.853516 32132.001953 46 38 32
25254.439453 26540.119141 32142.013672 46 38 32
25359.035156 26553.482422 32158.195312 47 39 33
25460.953125 26563.955078 32170.878906 47 39 33
25563.794922 26575.312500 32184.634766 47 39 33
25670.453125 26590.541016 32203.078125 46 38 32
25772.744141 26601.154297 32215.929688 45 37 30
25880.953125 26617.777344 32236.062500 42 34 28
25985.994141 26631.037109 32252.121094 41 33 27
26091.103516 26644.271484 32268.148438 40 32 26
26199.804688 26661.070312 32288.492188 40 32 26
26302.751953 26671.912109 32301.625000 40 32 26
26409.070312 26686.087891 32318.792969 39 31 25
26510.685547 26695.427734 32330.103516 38 30 23
26611.332031 26703.732422 32340.160156 38 30 23
26715.216797 26715.216797 32354.068359 38 30 23
26815.097656 26722.632812 32363.048828 38 30 23
26920.449219 26735.429688 32378.546875 38 30 23
27023.421875 26745.783203 32391.087891 38 30 23
27127.894531 26757.548828 32405.335938 38 30 23
27236.851562 26773.638672 32424.822266 37 28 24
27341.298828 26785.205078 32438.830078 37 28 24
27453.146484 26803.916016 32461.490234 35 27 23
27561.191406 26818.802734 32479.517578 34 26 22
27670.298828 26834.617188 32498.671875 33 25 21
27784.474609 26855.228516 32523.632812 33 25 21
27891.859375 26869.158203 32540.501953 33 25 21
28007.580078 26890.998047 32566.953125 34 26 22
28117.859375 26907.488281 32586.921875 36 25 20
28229.761719 26925.416016 32608.636719 36 25 20
28349.203125 26950.392578 32638.884766 36 25 20
28461.310547 26968.257812 32660.519531 36 25 20
28585.242188 26997.173828 32695.539062 36 25 20
28703.070312 27020.154297 32723.369141 37 27 21
28822.638672 27044.617188 32752.998047 38 28 22
28950.443359 27076.626953 32791.761719 39 29 23
29067.427734 27098.343750 32818.062500 42 29 25
29198.025391 27132.570312 32859.515625 43 30 26
29320.982422 27159.500000 32892.128906 43 30 26
29444.994141 27187.232422 32925.714844 43 30 26
29578.068359 27223.126953 32969.183594 46 31 25
29698.167969 27246.890625 32997.964844 46 31 25
29833.230469 27284.189453 33043.136719 49 32 26
29959.433594 27313.173828 33078.238281 50 33 27
30087.130859 27343.335938 33114.765625 53 33 26
30226.283203 27383.685547 33163.632812 54 35 27
30351.585938 27411.277344 33197.046875 58 37 26
30492.210938 27452.488281 33246.960938 59 38 27
30621.019531 27482.841797 33283.718750 62 38 28
30751.117188 27514.156250 33321.644531 62 38 28
30894.789062 27557.388672 33374.000000 62 39 26
31023.970703 27587.468750 33410.429688 62 39 26
31172.402344 27634.431641 33467.304688 62 39 26
31309.166016 27670.791016 33511.339844 62 39 26
31447.835938 27708.611328 33557.140625 62 39 26
31600.648438 27758.625000 33617.710938 62 39 26
31735.333984 27792.458984 33658.687500 62 38 28
31892.341797 27845.580078 33723.019531 61 37 27
32036.560547 27887.248047 33773.484375 57 36 25
32182.406250 27930.076172 33825.351562 54 33 22
32343.439453 27985.791016 33892.824219 46 31 25
32483.156250 28022.783203 33937.625000 43 28 21
32647.171875 28080.455078 34007.472656 34 26 20
32797.109375 28125.712891 34062.281250 30 22 15
32948.042969 28171.552734 34117.796875 22 16 11
33115.812500 28231.472656 34190.367188 21 15 10
33260.285156 28271.244141 34238.531250 20 13 11
33425.156250 28328.064453 34307.343750 21 15 12
33573.082031 28370.234375 34358.414062 25 17 13
33717.417969 28409.136719 34405.531250 31 22 18
33874.476562 28458.500000 34465.312500 34 26 20
34009.117188 28488.796875 34502.003906 38 30 23
34160.718750 28533.085938 34555.640625 35 27 21
34299.937500 28566.806641 34596.480469 31 23 16
34436.414062 28598.056641 34634.324219 23 18 11
34582.640625 28637.203125 34681.734375 22 17 9
34710.527344 28660.978516 34710.527344 26 20 15
34852.839844 28696.498047 34753.546875 35 29 24
34985.796875 28724.134766 34787.011719 50 35 24
35116.792969 28750.009766 34818.351562 58 44 32
35254.984375 28781.609375 34856.621094 71 49 33
35377.656250 28800.400391 34879.378906 77 54 39
35514.210938 28830.357422 34915.660156 88 58 43
35640.417969 28851.767578 34941.585938 95 65 50
35772.226562 28877.580078 34972.847656 105 70 57
35923.269531 28918.732422 35022.687500 111 76 63
36064.421875 28951.718750 35062.632812 118 80 65
36228.917969 29003.205078 35124.988281 122 83 69
36388.753906 29050.691406 35182.500000 124 86 69
36536.148438 29088.007812 35227.691406 128 89 73
36658.859375 29105.523438 35248.902344 132 89 74
36745.945312 29094.734375 35235.839844 132 89 74
36886.492188 29126.218750 35273.964844 127 86 72
37075.628906 29195.796875 35358.230469 122 81 68
37263.417969 29263.935547 35440.753906 111 74 62
37290.984375 29206.218750 35370.855469 102 65 52
37226.851562 29077.187500 35214.585938 94 55 41
37702.738281 29369.519531 35568.621094 88 49 35
37764.656250 29338.669922 35531.261719 85 49 34
39357.835938 30494.410156 36930.945312 82 46 30
44464.867188 34359.214844 41611.507812 75 43 29
51870.476562 39974.847656 48412.445312 69 38 23
67163.710938 51623.171875 62519.414062 64 37 21
32353.757812 54868.945312 66221.140625 107 101 96
26169.664062 44123.269531 53252.222656 95 93 89
21921.660156 36747.292969 44350.179688 89 87 83
19018.769531 31697.949219 38256.144531 87 88 85
17945.890625 29738.904297 35891.781250 91 91 89
17130.882812 28227.023438 34067.097656 96 99 96
16984.187500 27827.201172 33584.554688 104 107 104
17181.345703 27992.080078 33783.546875 117 120 117
17154.667969 27792.478516 33542.644531 135 137 134
17184.089844 27685.476562 33413.507812 142 145 139
17208.755859 27572.039062 33276.597656 140 144 138
17263.353516 27507.541016 33198.753906 139 139 134
17343.044922 27483.513672 33169.757812 135 136 131
17424.701172 27462.843750 33144.812500 133 133 131
17525.982422 27473.162109 33157.265625 129 130 127
17612.718750 27460.689453 33142.210938 126 126 124
17686.722656 27428.605469 33103.488281 121 121 119
17757.738281 27392.255859 33059.621094 119 119 117
17833.724609 27363.914062 33025.414062 118 118 116
17921.355469 27353.648438 33013.023438 119 119 117
18002.025391 27332.917969 32988.003906 120 120 118
18083.562500 27313.714844 32964.828125 122 123 118
18163.861328 27292.849609 32939.644531 123 124 119
18240.503906 27266.730469 32908.125000 126 126 122
18322.945312 27249.507812 32887.339844 126 126 122
18396.822266 27219.787109 32851.468750 126 126 122
18473.751953 27194.863281 32821.386719 126 126 122
18549.259766 27168.107422 32789.093750 126 126 122
18619.429688 27133.841797 32747.740234 126 126 122
18697.121094 27110.826172 32719.962891 126 126 122
18767.205078 27077.062500 32679.212891 126 126 122
18842.582031 27051.232422 32648.039062 125 125 121
18919.031250 27027.187500 32619.019531 122 123 118
18991.566406 26997.814453 32583.568359 121 122 117
19072.292969 26980.316406 32562.451172 118 118 114
19147.085938 26954.636719 32531.458984 114 115 110
19226.291016 26935.382812 32508.220703 112 113 108
19306.009766 26917.033203 32486.074219 109 110 107
19381.699219 26893.267578 32457.392578 107 107 105
19463.484375 26878.144531 32439.140625 104 104 102
19538.888672 26854.396484 32410.478516 100 100 98
19617.841797 26835.726562 32387.945312 101 99 97
19696.447266 26816.757812 32365.052734 98 96 95
19770.566406 26791.888672 32335.039062 97 95 93
19850.648438 26775.292969 32315.007812 96 94 92
19925.562500 26751.914062 32286.792969 95 93 91
20004.953125 26734.728516 32266.052734 95 93 91
20085.433594 26719.156250 32247.255859 94 92 90
20162.757812 26699.542969 32223.585938 92 90 89
20245.826172 26687.681641 32209.269531 93 88 88
20325.191406 26671.066406 32189.218750 92 87 86
20407.947266 26659.031250 32174.693359 93 83 84
20491.484375 26648.119141 32161.523438 93 83 84
20572.320312 26633.806641 32144.250000 91 82 83
20657.191406 26624.824219 32133.408203 90 81 82
20739.142578 26612.173828 32118.140625 92 81 80
20823.580078 26602.810547 32106.839844 92 81 80
20908.767578 26594.484375 32096.792969 91 79 79
20992.099609 26583.880859 32083.994141 91 79 79
21078.673828 26577.457031 32076.242188 89 78 77
21164.230469 26569.812500 32067.013672 88 77 76
21252.199219 26565.250000 32061.509766 87 76 73
21341.093750 26561.876953 32057.437500 86 75 72
21429.042969 26557.361328 32051.986328 85 74 69
21518.640625 26554.917969 32049.039062 84 73 68
21605.195312 26548.757812 32041.603516 82 72 66
21691.527344 26542.375000 32033.900391 80 70 64
21777.011719 26535.015625 32025.017578 80 69 66
21861.289062 26526.251953 32014.441406 79 68 65
21948.005859 26520.505859 32007.507812 75 67 63
22032.533203 26512.177734 31997.455078 74 65 61
22118.609375 26505.771484 31989.722656 73 64 60
22205.197266 26500.029297 31982.794922 72 63 59
22290.769531 26493.126953 31974.464844 72 63 59
22378.781250 26489.169922 31969.689453 70 62 58
22465.962891 26484.265625 31963.767578 68 60 56
22554.417969 26480.896484 31959.703125 67 58 54
22643.798828 26478.634766 31956.974609 67 58 54
22732.939453 26476.113281 31953.931641 66 57 53
22823.417969 26475.164062 31952.785156 66 57 53
22914.087891 26474.445312 31951.916016 65 56 52
23004.957031 26473.958984 31951.330078 65 56 52
23096.753906 26474.541016 31952.031250 65 56 52
23189.298828 26475.970703 31953.759766 63 55 51
23282.113281 26477.697266 31955.841797 62 54 50
23376.974609 26481.728516 31960.707031 62 54 50
23471.490234 26485.339844 31965.064453 61 53 49
23567.232422 26490.300781 31971.052734 60 51 47
23664.757812 26497.218750 31979.402344 60 51 47
23760.937500 26502.583984 31985.876953 59 50 46
23860.537109 26511.707031 31996.888672 58 49 45
23959.031250 26519.539062 32006.339844 58 49 45
24057.765625 26527.574219 32016.037109 56 48 44
24157.667969 26536.832031 32027.210938 55 47 43
24254.203125 26542.335938 32033.853516 54 46 42
24354.199219 26551.570312 32044.998047 53 44 41
24452.806641 26559.226562 32054.240234 52 43 39
24551.779297 26567.224609 32063.892578 51 42 38
24652.855469 26577.427734 32076.205078 51 42 38
24750.773438 26584.164062 32084.337891 49 41 37
24851.972656 26594.363281 32096.644531 48 40 36
24950.644531 26601.789062 32105.607422 47 39 33
25049.884766 26609.767578 32115.236328 46 38 32
25152.392578 26621.146484 32128.970703 46 38 32
25251.990234 26629.373047 32138.896484 46 38 32
25356.494141 26642.691406 32154.972656 46 38 32
25458.361328 26653.158203 32167.605469 46 38 32
25561.146484 26664.505859 32181.298828 46 38 32
25667.716797 26679.705078 32199.644531 45 37 30
25769.935547 26690.289062 32212.417969 44 36 29
25878.019531 26706.853516 32232.410156 41 33 27
25982.937500 26720.042969 32248.326172 39 31 25
26087.921875 26733.207031 32264.214844 39 31 25
26196.541016 26749.988281 32284.468750 39 31 25
26299.464844 26760.857422 32297.587891 39 31 25
26405.574219 26774.882812 32314.513672 39 31 25
26506.824219 26783.898438 32325.394531 38 30 23
26607.128906 26791.900391 32335.052734 38 30 23
26710.851562 26803.277344 32348.783203 38 30 23
26810.783203 26810.783203 32357.841797 38 30 23
26916.179688 26823.683594 32373.412109 38 30 23
27019.167969 26834.105469 32385.990234 38 30 23
27123.652344 26845.935547 32400.267578 37 29 22
27232.585938 26862.076172 32419.746094 37 28 24
27337.000000 26873.662109 32433.728516 35 27 23
27448.802734 26892.408203 32456.355469 34 26 22
27556.810547 26907.322266 32474.355469 33 25 21
27665.888672 26923.179688 32493.492188 33 25 21
27780.062500 26943.873047 32518.466797 33 25 21
27887.462891 26957.880859 32535.373047 33 25 21
28003.236328 26979.863281 32561.902344 33 25 21
28113.562500 26996.468750 32581.943359 33 25 21
28225.525391 27014.529297 32603.742188 33 25 21
28345.052734 27039.687500 32634.105469 33 25 21
28457.207031 27057.671875 32655.812500 34 26 22
28581.222656 27086.779297 32690.939453 36 25 20
28699.113281 27109.910156 32718.857422 37 27 21
28818.728516 27134.517578 32748.554688 39 29 23
28946.580078 27166.693359 32787.390625 39 29 23
29063.582031 27188.513672 32813.722656 42 29 25
29194.169922 27222.859375 32855.175781 43 30 26
29317.113281 27249.880859 32887.789062 44 32 27
29441.048828 27277.650391 32921.300781 46 33 28
29573.972656 27313.542969 32964.621094 47 32 26
29693.914062 27337.253906 32993.238281 48 34 27
29828.628906 27374.375000 33038.039062 50 33 23
29954.507812 27403.177734 33072.800781 51 35 24
30081.808594 27433.095703 33108.910156 53 34 22
30220.457031 27473.142578 33157.242188 55 37 25
30345.390625 27500.511719 33190.273438 58 37 26
30485.478516 27541.398438 33239.621094 60 39 28
30613.857422 27571.486328 33275.933594 62 38 28
30743.566406 27602.582031 33313.460938 63 40 29
30886.767578 27645.564453 33365.335938 63 40 27
31015.669922 27675.521484 33401.492188 63 40 27
31163.802734 27722.400391 33458.070312 62 39 26
31300.373047 27758.740234 33501.929688 62 39 26
31438.951172 27796.634766 33547.660156 62 39 26
31591.691406 27846.779297 33608.183594 62 39 26
31726.382812 27880.759766 33649.195312 62 38 28
31883.480469 27934.166016 33713.648438 62 38 28
32027.802734 27976.091797 33764.250000 59 36 26
32173.812500 28019.236328 33816.320312 56 33 22
32335.089844 28075.378906 33884.078125 47 32 26
32474.990234 28112.677734 33929.093750 43 28 21
32639.316406 28170.839844 33999.289062 37 27 21
32789.507812 28216.492188 34054.386719 32 22 16
32940.710938 28262.740234 34110.203125 26 20 15
33108.855469 28323.210938 34183.183594 22 16 11
33253.589844 28363.357422 34231.636719 21 15 12
33418.777344 28420.660156 34300.796875 21 15 12
33566.886719 28463.148438 34352.074219 23 17 13
33711.363281 28502.320312 34399.351562 29 23 18
33868.656250 28552.066406 34459.390625 34 26 20
34003.437500 28582.601562 34496.242188 38 30 23
34155.269531 28627.250000 34550.128906 38 30 23
34294.683594 28661.263672 34591.179688 33 25 19
34431.312500 28692.759766 34629.195312 27 19 13
34577.656250 28732.148438 34676.730469 25 17 11
34705.539062 28756.019531 34705.539062 27 21 14
34847.996094 28791.791016 34748.710938 36 31 23
34981.160156 28819.705078 34782.402344 51 37 23
35112.406250 28845.884766 34814.000000 60 46 33
35250.843750 28877.810547 34852.531250 75 52 35
35373.664062 28896.796875 34875.445312 80 58 41
35510.496094 28927.089844 34912.003906 90 60 45
35637.281250 28949.052734 34938.511719 96 66 51
35769.164062 28975.021484 34969.851562 106 70 57
35919.277344 29015.572266 35018.792969 113 77 64
36059.046875 29047.566406 35057.406250 121 82 68
36221.332031 29097.470703 35117.636719 123 84 70
36379.285156 29143.626953 35173.343750 127 88 72
36524.867188 29179.644531 35216.812500 129 91 74
36646.148438 29196.107422 35236.683594 133 90 75
36732.906250 29185.048828 35223.335938 133 90 75
36870.269531 29214.146484 35258.453125 129 88 75
37054.187500 29279.876953 35337.781250 123 82 69
37237.023438 29344.394531 35415.648438 115 76 64
37265.726562 29287.425781 35346.894531 107 68 56
37207.011719 29162.253906 35195.824219 96 58 43
37668.046875 29444.027344 35535.894531 89 51 36
37692.140625 29383.658203 35463.035156 85 49 34
39248.160156 30514.654297 36828.031250 82 46 30
44330.972656 34374.281250 41486.203125 74 42 28
51742.152344 40013.929688 48292.675781 69 38 23
67128.835938 51774.898438 62486.945312 65 38 22
37054.988281 63058.488281 75843.546875 112 104 98
29813.101562 50439.609375 60666.195312 98 97 93
24397.957031 41039.339844 49360.031250 91 90 86
20426.539062 34161.625000 41087.867188 86 87 84
18646.091797 31005.787109 37292.183594 88 89 86
17347.974609 28683.296875 34498.812500 94 95 92
17068.007812 28060.962891 33750.296875 102 103 100
17250.572266 28201.777344 33919.664062 114 114 112
17165.890625 27906.558594 33564.589844 130 131 128
17186.847656 27785.402344 33418.871094 141 141 139
17204.919922 27660.949219 33269.183594 142 142 140
17258.480469 27594.603516 33189.386719 140 140 136
17342.789062 27577.876953 33169.265625 136 137 132
17422.466797 27554.011719 33140.562500 134 134 132
17520.494141 27559.265625 33146.882812 130 131 128
17607.437500 27547.119141 33132.273438 127 127 125
17686.214844 27522.400391 33102.542969 122 123 120
17762.359375 27493.865234 33068.222656 120 120 118
17839.564453 27467.265625 33036.230469 119 119 117
17925.175781 27453.820312 33020.058594 119 120 115
18004.146484 27430.402344 32991.894531 120 121 116
18085.419922 27410.712891 32968.210938 121 122 117
18165.687500 27389.714844 32942.957031 123 124 119
18241.900391 27362.849609 32910.644531 125 125 121
18323.955078 27344.980469 32889.152344 125 125 121
18397.199219 27314.207031 32852.140625 126 126 122
18473.587891 27288.396484 32821.093750 126 126 122
18548.562500 27260.765625 32787.863281 125 125 121
18618.117188 27225.488281 32745.431641 125 125 121
18695.443359 27201.871094 32717.027344 125 125 121
18765.099609 27167.382812 32675.546875 126 126 122
18840.136719 27140.988281 32643.798828 125 125 121
18916.435547 27116.664062 32614.544922 123 124 119
18988.994141 27087.242188 32579.158203 121 122 117
19069.929688 27069.998047 32558.416016 119 120 115
19145.091797 27044.765625 32528.068359 115 116 111
19224.601562 27025.890625 32505.367188 113 114 109
19304.667969 27007.972656 32483.816406 109 110 107
19380.775391 26984.714844 32455.843750 107 107 105
19462.828125 26969.919922 32438.046875 104 104 102
19538.615234 26946.621094 32410.025391 101 102 99
19617.873047 26928.306641 32387.996094 101 99 97
19696.722656 26909.605469 32365.505859 99 97 96
19771.089844 26884.986328 32335.894531 97 95 93
19851.275391 26868.470703 32316.029297 96 94 92
19926.255859 26845.095703 32287.914062 95 93 91
20005.650391 26827.853516 32267.177734 95 93 91
20086.064453 26812.130859 32248.267578 95 93 91
20163.316406 26792.351562 32224.478516 92 90 89
20246.324219 26780.365234 32210.060547 93 88 88
20325.455078 26763.380859 32189.632812 92 87 86
20407.951172 26750.960938 32174.697266 93 83 84
20491.150391 26739.572266 32160.998047 93 83 84
20571.562500 26724.662109 32143.064453 91 82 83
20656.126953 26715.257812 32131.753906 90 81 82
20737.636719 26702.001953 32115.810547 92 81 80
20821.736328 26692.181641 32103.998047 91 79 79
20906.609375 26683.435547 32093.478516 91 79 79
20989.550781 26672.310547 32080.099609 89 78 77
21075.882812 26665.574219 32071.996094 88 77 76
21161.193359 26657.607422 32062.416016 87 76 75
21249.037109 26652.886719 32056.736328 87 76 73
21337.880859 26649.457031 32052.611328 86 75 72
21425.748047 26644.841797 32047.060547 84 73 68
21515.304688 26642.355469 32044.070312 82 72 66
21602.021484 26636.392578 32036.896484 81 71 65
21688.658203 26630.376953 32029.662109 80 70 64
21774.482422 26623.419922 32021.296875 77 69 65
21858.994141 26614.927734 32011.080078 76 68 64
21945.763672 26609.238281 32004.238281 75 67 63
22030.404297 26601.027344 31994.361328 74 65 61
22116.580078 26594.730469 31986.791016 73 64 60
22203.265625 26589.095703 31980.011719 72 63 59
22288.962891 26582.330078 31971.875000 70 62 58
22377.054688 26578.460938 31967.220703 69 61 57
22464.347656 26573.679688 31961.468750 68 60 56
22552.876953 26570.392578 31957.517578 67 58 54
22642.320312 26568.207031 31954.886719 66 57 53
22731.556641 26565.794922 31951.986328 66 57 53
22822.093750 26564.917969 31950.931641 65 56 52
22912.863281 26564.316406 31950.208984 65 56 52
23003.822266 26563.937500 31949.751953 65 56 52
23095.675781 26564.591797 31950.541016 65 56 52
23188.236328 26566.050781 31952.294922 63 55 51
23281.025391 26567.757812 31954.347656 62 54 50
23375.826172 26571.740234 31959.136719 61 53 49
23470.285156 26575.304688 31963.423828 61 53 49
23565.955078 26580.205078 31969.318359 60 51 47
23663.382812 26587.044922 31977.544922 60 51 47
23759.494141 26592.357422 31983.935547 59 50 46
23858.937500 26601.343750 31994.744141 58 49 45
23957.279297 26609.039062 32003.998047 56 48 44
24055.837891 26616.916016 32013.472656 55 47 43
24155.531250 26625.984375 32024.378906 54 46 42
24251.933594 26631.367188 32030.855469 53 44 41
24351.806641 26640.509766 32041.849609 52 43 39
24450.384766 26648.173828 32051.066406 51 42 38
24549.363281 26656.210938 32060.734375 51 42 38
24650.398438 26666.416016 32073.007812 49 41 37
24748.271484 26673.136719 32081.091797 48 40 36
24849.382812 26683.287109 32093.298828 47 39 35
24947.978516 26690.667969 32102.177734 47 39 33
25047.113281 26698.570312 32111.683594 46 38 32
25149.486328 26709.855469 32125.255859 44 39 32
25248.972656 26718.003906 32135.054688 43 38 30
25353.337891 26731.238281 32150.972656 43 38 30
25455.119141 26741.658203 32163.507812 43 38 30
25557.812500 26752.962891 32177.101562 45 37 30
25664.226562 26768.064453 32195.265625 45 37 30
25766.314453 26778.562500 32207.894531 42 34 28
25874.179688 26794.968750 32227.625000 40 32 26
25978.875000 26807.988281 32243.283203 38 30 23
26083.654297 26821.001953 32258.937500 38 30 23
26192.126953 26837.708984 32279.031250 39 31 25
26295.035156 26848.615234 32292.148438 39 31 25
26400.824219 26862.378906 32308.701172 39 31 25
26501.519531 26870.878906 32318.927734 38 30 23
26601.308594 26878.406250 32327.978516 38 30 23
26704.808594 26889.617188 32341.464844 38 30 23
26804.851562 26897.283203 32350.683594 38 30 23
26910.369141 26910.369141 32366.423828 38 30 23
27013.416016 26920.904297 32379.093750 38 30 23
27117.941406 26932.835938 32393.445312 37 29 22
27226.878906 26949.054688 32412.951172 37 29 22
27331.255859 26960.662109 32426.914062 35 27 21
27443.017578 26979.453125 32449.513672 34 26 22
27550.976562 26994.390625 32467.480469 33 25 21
27660.035156 27010.302734 32486.617188 32 24 20
27774.214844 27031.091797 32511.623047 32 24 20
27881.652344 27045.203125 32528.595703 32 24 20
27997.529297 27067.378906 32555.267578 32 24 20
28107.968750 27084.169922 32575.460938 32 24 20
28220.072266 27102.445312 32597.443359 32 24 20
28339.781250 27127.882812 32628.037109 33 25 21
28452.062500 27146.066406 32649.908203 34 26 22
28576.269531 27175.470703 32685.275391 35 27 23
28694.316406 27198.847656 32713.390625 37 28 24
28814.068359 27223.681641 32743.259766 39 29 23
28942.093750 27256.146484 32782.308594 39 29 23
29059.187500 27278.140625 32808.761719 41 28 23
29189.855469 27312.695312 32850.320312 42 29 25
29312.857422 27339.875000 32883.011719 46 31 25
29436.753906 27367.716797 32916.496094 48 34 27
29569.554688 27403.630859 32959.695312 51 34 26
29689.324219 27427.281250 32988.140625 51 34 26
29823.644531 27464.179688 33032.515625 53 34 22
29949.119141 27492.724609 33066.851562 53 34 22
30075.912109 27522.296875 33102.417969 56 35 21
30213.912109 27561.906250 33150.058594 57 36 23
30338.373047 27588.958984 33182.597656 59 38 27
30477.765625 27629.376953 33231.207031 60 39 28
30605.609375 27659.107422 33266.964844 62 39 26
30734.808594 27689.875000 33303.972656 63 40 27
30877.378906 27732.460938 33355.195312 63 40 27
31005.869141 27762.177734 33390.937500 63 40 27
31153.542969 27808.835938 33447.054688 62 39 26
31289.808594 27845.058594 33490.621094 62 39 26
31428.222656 27882.964844 33536.214844 62 38 28
31580.796875 27933.166016 33596.593750 62 38 28
31715.447266 27967.257812 33637.597656 62 38 28
31872.603516 28020.929688 33702.148438 62 38 28
32016.980469 28063.076172 33752.839844 61 37 27
32163.183594 28106.564453 33805.148438 56 33 22
32324.781250 28163.208984 33873.273438 49 32 26
32464.994141 28200.935547 33918.652344 45 28 23
32629.867188 28259.794922 33989.445312 38 28 22
32780.511719 28306.021484 34045.042969 34 23 18
32932.218750 28352.888672 34101.410156 30 22 15
33101.039062 28414.166016 34175.113281 26 18 12
33246.238281 28454.869141 34224.070312 22 16 11
33412.015625 28512.894531 34293.859375 22 16 11
33560.503906 28555.867188 34345.546875 23 17 13
33705.261719 28595.425781 34393.125000 28 22 17
33862.925781 28645.673828 34453.558594 33 25 19
33997.906250 28676.494141 34490.628906 38 30 23
34149.992188 28721.525391 34544.789062 38 30 23
34289.605469 28755.835938 34586.058594 35 27 21
34426.343750 28787.546875 34624.199219 30 22 15
34572.718750 28827.109375 34671.781250 27 19 13
34700.503906 28850.990234 34700.503906 29 24 16
34843.035156 28886.962891 34743.769531 37 32 25
34976.402344 28915.152344 34777.671875 53 39 26
35107.937500 28941.669922 34809.570312 62 49 35
35246.679688 28973.964844 34848.410156 77 55 37
35369.683594 28993.177734 34871.519531 83 61 43
35506.906250 29023.904297 34908.476562 95 63 49
35634.558594 29046.656250 34935.839844 100 68 53
35766.570312 29072.826172 34967.316406 109 72 59
35915.250000 29112.363281 35014.871094 114 78 65
36052.890625 29142.751953 35051.421875 122 83 69
36212.015625 29190.294922 35108.601562 124 86 71
36367.539062 29234.679688 35161.984375 128 89 73
36510.675781 29268.888672 35203.132812 129 91 74
36629.523438 29283.492188 35220.695312 133 92 76
36715.136719 29271.521484 35206.296875 133 92 76
36847.746094 29296.978516 35236.917969 130 89 76
37025.035156 29357.724609 35309.976562 126 85 71
37201.238281 29417.285156 35381.613281 118 79 67
37231.492188 29361.419922 35314.421875 109 70 58
37180.117188 29241.658203 35170.378906 99 60 46
37613.300781 29502.617188 35484.246094 90 52 37
37576.937500 29394.863281 35354.648438 85 49 34
39065.121094 30477.080078 36656.281250 82 46 30
44067.804688 34288.050781 41239.925781 74 44 29
51408.558594 39893.039062 47981.320312 70 41 26
66798.585938 51697.843750 62179.539062 65 38 20
33005.445312 56032.503906 67162.250000 104 100 97
26671.414062 45017.648438 53959.507812 96 92 89
21708.113281 36429.707031 43665.746094 90 88 86
19278.105469 32166.896484 38556.210938 90 88 86
17563.082031 29138.750000 34926.585938 93 94 91
17156.958984 28304.134766 33926.187500 100 100 98
17303.605469 28385.689453 34023.941406 111 111 109
17161.757812 27995.714844 33556.507812 126 126 124
17175.808594 27862.978516 33397.406250 136 137 132
17191.166016 27733.814453 33242.585938 141 142 137
17249.074219 27674.339844 33171.296875 140 140 136
17341.712891 27670.929688 33167.210938 136 137 132
17418.349609 27642.164062 33132.730469 134 134 132
17508.361328 27634.818359 33123.925781 132 132 130
17593.492188 27619.890625 33106.031250 128 128 126
17679.720703 27606.835938 33090.386719 123 124 121
17764.611328 27591.843750 33072.414062 121 121 119
17844.191406 27568.804688 33044.800781 119 119 117
17926.998047 27550.964844 33023.417969 119 120 115
18003.808594 27524.146484 32991.269531 120 121 116
18084.984375 27504.246094 32967.417969 121 122 117
18165.515625 27483.578125 32942.644531 122 123 118
18241.501953 27456.283203 32909.925781 123 124 119
18323.261719 27437.910156 32887.906250 125 125 121
18396.017578 27406.312500 32850.031250 125 125 121
18471.996094 27379.810547 32818.265625 125 125 121
18546.552734 27351.482422 32784.312500 125 125 121
18615.626953 27315.392578 32741.052734 125 125 121
18692.664062 27291.289062 32712.160156 125 125 121
18761.980469 27256.210938 32670.117188 126 126 122
18836.742188 27229.351562 32637.921875 126 126 122
18912.943359 27204.824219 32608.523438 125 125 121
18985.572266 27175.427734 32573.287109 122 123 118
19066.730469 27158.464844 32552.953125 120 121 116
19142.279297 27133.716797 32523.291016 116 117 112
19222.109375 27115.248047 32501.152344 114 115 110
19302.531250 27097.783203 32480.220703 111 111 107
19379.072266 27075.068359 32452.992188 107 108 103
19461.410156 27060.626953 32435.681641 105 105 103
19537.587891 27037.800781 32408.322266 101 102 99
19617.148438 27019.845703 32386.800781 102 100 98
19696.236328 27001.412109 32364.707031 99 97 96
19770.861328 26977.064453 32335.521484 98 96 95
19851.162109 26960.646484 32315.843750 97 95 93
19926.212891 26937.289062 32287.845703 96 94 92
20005.619141 26920.001953 32267.126953 95 93 91
20085.966797 26904.138672 32248.113281 95 93 91
20163.152344 26884.203125 32224.214844 94 92 90
20246.087891 26872.080078 32209.685547 93 88 88
20325.011719 26854.765625 32188.931641 92 87 86
20407.281250 26842.009766 32173.642578 93 83 84
20490.197266 26830.214844 32159.503906 93 83 84
20570.251953 26814.792969 32141.017578 91 82 83
20654.562500 26805.031250 32129.320312 90 81 82
20735.714844 26791.279297 32112.833984 92 81 80
20819.539062 26781.082031 32100.611328 91 79 79
20904.181641 26772.021484 32089.751953 91 79 79
20986.843750 26760.517578 32075.962891 89 78 77
21073.011719 26753.562500 32067.626953 88 77 74
21158.177734 26745.402344 32057.845703 87 76 73
21245.949219 26740.591797 32052.078125 86 75 70
21334.804688 26737.179688 32047.988281 85 74 69
21422.701172 26732.603516 32042.503906 84 73 68
21512.306641 26730.183594 32039.605469 82 72 66
21599.222656 26724.462891 32032.746094 80 70 64
21686.115234 26718.757812 32025.908203 80 70 64
21772.212891 26712.126953 32017.960938 76 68 64
21856.976562 26703.921875 32008.125000 75 67 63
21943.851562 26698.353516 32001.451172 74 65 61
22028.669922 26690.337891 31991.843750 73 64 60
22114.988281 26684.199219 31984.486328 72 63 59
22201.812500 26678.720703 31977.919922 72 63 59
22287.693359 26672.158203 31970.052734 69 61 57
22375.898438 26668.416016 31965.568359 68 60 56
22463.345703 26663.808594 31960.044922 67 58 54
22551.986328 26660.646484 31956.255859 66 57 53
22641.521484 26658.566406 31953.761719 66 57 53
22730.888672 26656.302734 31951.048828 65 56 52
22821.501953 26655.513672 31950.101562 65 56 52
22912.367188 26655.025391 31949.517578 65 56 52
23003.412109 26654.748047 31949.183594 65 56 52
23095.310547 26655.457031 31950.035156 63 55 51
23187.878906 26656.931641 31951.802734 62 54 50
23280.626953 26658.599609 31953.800781 61 53 49
23375.355469 26662.513672 31958.492188 60 51 47
23469.753906 26666.025391 31962.701172 60 51 47
23565.345703 26670.855469 31968.492188 60 51 47
23662.683594 26677.621094 31976.599609 59 50 46
23758.728516 26682.880859 31982.904297 58 49 45
23858.009766 26691.720703 31993.500000 58 49 45
23956.134766 26699.203125 32002.470703 56 48 44
24054.501953 26706.900391 32011.695312 55 47 43
24154.076172 26715.871094 32022.449219 54 46 42
24250.464844 26721.265625 32028.916016 53 44 41
24350.332031 26730.441406 32039.912109 52 43 39
24448.910156 26738.134766 32049.132812 51 42 38
24547.878906 26746.197266 32058.796875 51 42 38
24648.898438 26756.423828 32071.056641 49 41 37
24746.757812 26763.160156 32079.128906 48 40 36
24847.820312 26773.296875 32091.281250 47 39 35
24946.359375 26780.650391 32100.095703 47 39 33
25045.429688 26788.517578 32109.525391 46 38 32
25147.699219 26799.736328 32122.972656 46 38 32
25247.101562 26807.832031 32132.675781 45 37 30
25351.349609 26820.992188 32148.449219 45 37 30
25453.052734 26831.376953 32160.896484 45 37 30
25555.650391 26842.626953 32174.380859 44 36 29
25661.921875 26857.638672 32192.375000 42 34 28
25763.892578 26868.058594 32204.865234 40 32 26
25871.539062 26884.304688 32224.337891 39 31 25
25976.019531 26897.156250 32239.742188 38 30 23
26080.619141 26910.037109 32255.181641 38 30 23
26189.042969 26926.763672 32275.230469 38 30 23
26292.046875 26937.816406 32288.478516 39 31 25
26397.621094 26951.417969 32304.781250 38 30 23
26497.787109 26959.419922 32314.373047 38 30 23
26597.062500 26966.466797 32322.818359 38 30 23
26700.365234 26977.531250 32336.082031 37 29 22
26800.523438 26985.353516 32345.458984 37 29 22
26906.177734 26998.638672 32361.380859 37 29 22
27009.296875 27009.296875 32374.158203 37 29 22
27113.876953 27021.337891 32388.589844 37 29 22
27222.853516 27037.664062 32408.160156 35 27 23
27327.216797 27049.312500 32422.121094 35 27 23
27438.980469 27068.183594 32444.740234 34 26 22
27546.933594 27083.181641 32462.716797 33 25 21
27656.003906 27099.171875 32481.882812 32 24 20
27770.236328 27120.097656 32506.966797 32 24 20
27877.718750 27134.312500 32524.003906 32 24 20
27993.728516 27156.705078 32550.845703 32 24 20
28104.291016 27173.685547 32571.199219 32 24 20
28216.562500 27192.199219 32593.390625 32 24 20
28336.482422 27217.935547 32624.238281 32 24 20
28448.917969 27236.339844 32646.298828 34 26 22
28573.355469 27266.076172 32681.941406 37 26 23
28691.578125 27289.708984 32710.267578 39 29 25
28811.505859 27314.804688 32740.347656 41 28 23
28939.759766 27347.605469 32779.664062 41 28 23
29057.003906 27369.824219 32806.296875 41 28 23
29187.847656 27404.667969 32848.058594 42 29 25
29310.972656 27432.064453 32880.898438 47 32 26
29434.916016 27460.048828 32914.441406 50 35 28
29567.734375 27496.109375 32957.664062 53 34 24
29687.453125 27519.798828 32986.058594 53 34 24
29821.572266 27556.642578 33030.222656 54 33 22
29946.826172 27585.089844 33064.320312 56 35 23
30073.306641 27614.482422 33099.550781 57 36 25
30210.910156 27653.873047 33146.765625 58 37 26
30335.068359 27680.750000 33178.980469 59 38 27
30474.017578 27720.914062 33227.121094 60 39 28
30601.509766 27750.437500 33262.511719 63 40 27
30730.365234 27781.009766 33299.156250 64 41 28
30872.480469 27823.347656 33349.902344 64 41 28
31000.669922 27852.908203 33385.335938 63 40 27
31147.978516 27899.416016 33441.082031 63 40 27
31283.998047 27935.556641 33484.402344 63 40 27
31422.255859 27973.472656 33529.847656 63 40 27
31574.679688 28023.728516 33590.085938 63 40 27
31709.292969 28057.919922 33631.066406 63 40 27
31866.464844 28111.806641 33695.656250 63 40 27
32010.867188 28154.136719 33746.394531 62 38 28
32157.203125 28197.908203 33798.863281 57 34 23
32319.089844 28255.011719 33867.308594 49 32 26
32459.580078 28293.126953 33912.992188 45 28 23
32624.953125 28352.636719 33984.324219 38 28 22
32776.015625 28399.398438 34040.375000 36 25 20
32928.195312 28446.843750 34097.246094 31 23 16
33097.632812 28508.876953 34171.597656 30 22 15
33243.261719 28550.097656 34221.007812 27 19 15
33409.578125 28608.789062 34291.355469 25 17 13
